# 3D point list with one line of data per point:
#   POINT3D_ID, X, Y, Z, R, G, B, ERROR, TRACK[] as (IMAGE_ID, POINT2D_IDX)
# Number of points: 509, mean track length: 5.94281
3148 -1.5966 -2.32546 7.49223 231 196 122 1.401 4 3058 8 2630 9 814 2 7475 1 6628 7 567 13 5207 16 4019 5 2869 15 2842 17 674
3147 -2.27886 -2.2173 7.58325 192 174 152 0.694263 4 424 8 2623 9 983
3146 2.99364 -2.25927 7.11907 41 42 72 1.5363 6 2597 8 2616 9 4927 12 4786 11 6224 15 790 4 379
3145 2.75494 -2.26926 7.14417 20 22 47 1.12314 4 376 8 2615 7 501 12 4785 2 547
3144 1.0944 -2.32923 7.25626 126 154 153 0.597299 4 351 8 2611 11 3038
3143 -1.66126 -2.45415 7.47189 239 213 186 0.944409 4 3057 8 2596 7 562 9 650 12 3423 11 3164
3142 5.40755 -3.9334 9.06017 61 55 67 0.839701 4 2965 6 4862 8 2521
3141 3.33994 2.57588 6.70135 225 209 181 1.17391 6 2414 8 2455 10 3231
3140 3.33994 2.57588 6.70135 225 209 181 1.17391 6 2413 8 2454 10 3232
3139 4.02672 2.46987 6.73432 67 74 129 0.441021 6 3873 8 2438 10 5171
3138 4.0818 2.44013 6.69982 238 227 209 0.0333401 6 3878 8 2437 10 5176
3137 4.05495 2.4291 6.75217 67 72 131 0.305177 6 2398 8 2436 10 5145 7 4247
3136 4.01156 2.43882 6.70665 77 83 133 0.348271 6 2402 8 2435 10 5144
3135 4.00401 2.44018 6.75128 235 227 206 0.501346 6 2401 8 2434 10 5141 7 2657
3134 3.77484 2.42326 6.742 236 227 204 1.14319 6 2395 8 2432 10 3240 7 2638
3133 3.54199 2.41448 6.75009 230 216 189 1.30606 6 2389 8 2430 7 2632 10 3195
3132 3.54199 2.41448 6.75009 230 216 189 1.30606 6 2388 8 2429 10 3194 7 2631
3131 3.52458 2.4142 6.7522 237 225 202 0.941567 6 2387 8 2428 10 3193 7 4201
3130 3.52458 2.4142 6.7522 237 225 202 0.941567 6 2386 8 2427 10 3192 7 4200
3129 3.38516 2.46607 6.7212 139 129 130 1.18747 6 2384 8 2425 10 5125 7 4197
3128 3.32798 2.47043 6.72612 131 138 154 1.05949 6 2381 8 2424 10 3228 7 2630
3127 3.32834 2.45371 6.73866 170 161 162 1.34236 6 2379 8 2423 7 2628
3126 3.25987 2.45961 6.72984 133 121 141 1.75902 6 2372 8 2421 10 5100 7 4192
3125 2.65147 2.44691 6.71053 245 236 207 1.98983 6 2367 8 2417 10 3132 7 2582
3124 2.65147 2.44691 6.71053 245 236 207 1.98983 6 2368 8 2416 10 3131 7 2581
3123 4.31047 2.28372 6.80343 255 243 214 0.144906 6 2360 8 2412 7 4221
3122 4.10638 2.37582 6.76844 126 124 148 0.238514 6 2400 8 2406 7 4249
3121 4.10638 2.37582 6.76844 126 124 148 0.238514 6 2399 8 2405 7 4248
3120 4.06832 2.37706 6.77862 132 135 152 0.437806 6 2396 8 2404 10 5140 7 4215
3119 3.35796 2.40916 6.7816 143 136 154 1.14607 6 2377 8 2400 10 3189 7 2627
3118 3.35796 2.40916 6.7816 143 136 154 1.14607 6 2376 8 2399 10 3190 7 2626
3117 3.35772 2.38564 6.74853 233 226 200 1.22707 6 2375 8 2398 10 3187 7 2625
3116 3.35963 2.35868 6.7549 140 132 142 1.22619 6 2357 8 2397 10 5104 7 4178
3115 3.31533 2.35489 6.76901 137 128 132 1.3089 6 2354 8 2396 10 5101 7 4176
3114 3.29686 2.383 6.75268 240 229 209 1.14027 6 2370 8 2393 10 3184 7 2624
3113 3.89437 2.10873 6.77936 198 191 172 0.529686 6 2348 8 2383 10 5068
3112 3.89437 2.10873 6.77936 198 191 172 0.529686 6 2349 8 2382 10 5067
3111 3.861 2.12168 6.7869 37 39 84 0.673425 6 2347 8 2379 10 5066 7 4155
3110 3.67485 2.08643 6.77952 51 50 68 1.01237 6 2345 8 2378 10 5065 7 4154
3109 4.75782 2.15567 7.74497 52 48 38 0.446198 6 3789 7 5204
3108 3.96823 1.91336 6.76324 34 46 88 0.287645 6 2307 8 2355 7 2486
3107 2.96187 1.9863 6.83251 35 21 12 1.21677 6 2294 8 2345 10 3032 7 2466 12 4724
3106 2.40284 2.05276 6.85459 205 192 173 1.85107 6 2277 8 2339 10 5007 11 4490
3104 2.96412 1.87697 6.85228 163 43 71 0.752637 6 2232 8 2305 10 2964
3103 2.96473 1.86875 6.81959 163 43 71 1.18137 6 2231 8 2304 10 2963 7 2407 12 5736 11 5483
3102 2.95207 1.94194 6.7984 208 197 165 1.19865 6 2292 8 2302 7 2403
3101 2.94997 1.94799 6.82765 208 197 165 1.13352 6 2293 8 2301 7 2404 12 4723
3100 2.93926 1.87976 6.81402 203 185 156 1.26258 6 2230 8 2299 10 2966 7 2400 12 4702 11 4517
3099 2.94119 1.87418 6.7834 203 185 156 1.06808 6 2229 8 2298 10 2965 7 2401
3097 2.82493 1.84433 6.81076 189 182 163 0.785906 6 2227 8 2295 10 2953 7 2397 12 4694
3096 2.78111 1.86588 6.81436 196 189 163 1.26852 6 2220 8 2290 10 2958 7 4095 12 3149
3095 2.78184 1.83026 6.80664 205 194 167 1.12382 6 2219 8 2289 10 4976 7 2392 12 3148
3094 2.55282 1.94843 6.83379 202 187 165 1.71502 6 2286 8 2288 10 2948 7 2389 12 3147 11 4495
3093 2.54457 1.93066 6.82892 176 161 138 1.52512 6 2284 8 2287 10 2942 12 4686
3092 2.5164 1.97404 6.84103 131 117 91 1.30262 6 2283 8 2286 10 4970 7 2386 12 4690 11 4493
3091 2.45221 1.95203 6.83685 132 118 92 1.46712 6 2280 8 2283 10 2940 7 2383 11 4491
3090 2.39855 1.94971 6.83624 97 79 55 1.49292 6 2275 8 2279 10 2938 7 2374 12 4682 11 4486
3089 2.39855 1.94971 6.83624 97 79 55 1.49292 6 2274 8 2278 10 2937 7 2375 12 4681 11 4485
3088 2.95741 1.69893 6.7836 211 200 171 0.965705 6 2184 8 2250 7 2347 12 3107 11 4470
3087 2.9548 1.62375 6.77597 208 199 169 0.459346 6 2183 8 2249 7 2304
3086 2.95576 1.62247 6.765 208 199 169 0.64598 6 2182 8 2248 7 2305 12 4675
3085 2.91711 1.75589 6.77336 156 48 64 0.92342 6 2224 8 2244 10 2955 7 2343
3084 2.91711 1.75589 6.77336 156 48 64 0.92342 6 2223 8 2243 10 2956 7 2344
3083 2.94261 1.70964 6.78361 34 21 12 0.869439 6 2221 8 2242 10 2906 7 2339 12 3105 11 4468
3082 2.78522 1.6813 6.76231 206 192 166 1.17731 6 2179 8 2241 10 2905
3081 3.02366 1.5949 7.12937 32 16 14 0.260348 6 2185 9 5809
3080 2.69993 1.51666 6.75302 186 170 144 1.45089 6 2160 8 2225 10 2849 7 2301 12 4645 11 4414
3079 3.54851 1.37147 6.696 163 155 132 1.06212 4 2393 8 2210 10 2854 12 4662 11 5457
3078 3.5481 1.2701 6.67535 141 128 109 0.96971 6 3664 8 2207 7 5088 12 5678 11 6169 15 2090
3077 3.83215 1.07903 6.70944 67 66 62 1.22514 6 2125 8 2181 7 3995
3076 3.73019 1.05944 6.69981 2 15 36 0.980307 6 2123 8 2165 10 2742 7 2238 12 4621 11 4404
3075 3.68333 0.969733 6.69419 20 36 61 1.05934 4 2353 8 2155 10 4841 7 2209
3074 3.68289 0.970501 6.69026 20 36 61 1.06937 4 2354 8 2154 10 4840 7 2208 12 5665 11 5375
3073 3.54517 1.06268 6.71185 13 21 40 0.889588 6 2110 8 2150 10 4866 7 2234 12 5660 11 5392
3072 3.48224 1.05088 6.72116 42 56 69 0.915275 6 2105 8 2146 10 2725 12 4605 11 5370
3071 3.48224 1.05088 6.72116 42 56 69 0.915275 6 2106 8 2145 10 2724 12 4604 11 5369
3070 3.607 0.981863 6.69504 81 94 108 0.991571 6 2111 8 2143 10 4831 7 2204 12 4580
3069 3.607 0.981863 6.69504 81 94 108 0.991571 6 2112 8 2142 10 4832 7 2203 12 4581
3068 3.53271 0.991235 6.73706 7 22 51 0.887055 6 2108 8 2141 7 2195
3067 3.53241 0.988401 6.70057 7 22 51 0.843609 6 2107 8 2140 7 2194 11 5364 12 4568
3066 3.45332 0.984307 6.70685 18 31 73 0.859091 6 2102 8 2134 10 2630 7 2180 12 4559 11 5362
3065 3.4037 1.02242 6.72153 134 145 151 1.17413 4 2337 8 2128 10 2713 7 2173 12 4551
3064 3.6766 0.899583 6.67686 7 21 50 1.23369 6 2074 8 2094 10 6150 12 5656 11 5373
3063 3.63952 0.79306 6.66959 115 123 125 1.88402 6 2026 8 2090 9 4593 12 5647 11 5330
3062 3.63952 0.79306 6.66959 115 123 125 1.88402 6 2025 8 2089 9 4592 12 5646 11 5329
3061 3.63436 0.804331 6.87218 104 114 116 1.00568 6 2024 8 2088 9 4591
3060 3.62573 0.792002 6.66118 104 114 116 1.09993 6 2023 8 2087 10 4797 7 2130 11 5327 4 2288
3059 3.4524 0.787505 6.77477 137 141 150 1.56065 6 2019 8 2076 7 2120 9 4563
3058 3.45429 0.781104 6.66837 137 141 150 1.23962 6 2018 8 2075 10 4792 7 2119 11 4266
3057 3.39776 0.778762 6.67819 138 146 154 1.10323 6 2014 8 2072 10 2541 12 4512 11 4263
3056 3.39776 0.778762 6.67819 138 146 154 1.10323 6 2013 8 2071 10 2542 12 4511 11 4262
3053 -0.248624 0.959546 7.01165 27 31 69 2.26535 4 2318 10 2441 7 2065 2 5798 13 2948 8 2054 3 4338
3050 3.35938 0.73651 6.6731 211 210 179 1.29447 6 2010 8 2024 10 4787 7 2093 12 4507 11 5316
3049 2.25312 0.714824 6.76687 122 119 128 1.96162 4 2267 6 1998 8 2023 10 4763 7 2085 9 4544 12 4490 11 4206 5 2293
3048 2.25312 0.714824 6.76687 122 119 128 1.96162 4 2266 6 1999 8 2022 10 4762 7 2084 9 4543 12 4491 11 4205 5 2292
3047 2.19237 0.722771 6.758 2 18 54 2.03248 4 2264 6 1996 8 2018 10 2464 7 2081 9 2623 2 3035
3046 2.13664 0.73452 6.78205 87 99 109 1.8636 4 2263 6 2000 8 2017 10 2467 7 2082 9 2620 11 2395 12 4488 5 2282
3045 2.12346 0.721736 6.77217 9 21 61 2.11423 4 2262 6 1994 8 2016 10 2461 7 2079 9 2618 12 4484 11 4201 2 3032 5 3942
3044 2.09248 0.718346 6.78013 13 24 56 1.81765 4 2261 6 1993 8 2013 10 2457 7 2078 9 2615 11 4199 5 2280
3043 2.06814 0.732452 6.78329 112 124 134 1.82324 4 2260 6 1992 8 2008 10 2453 7 2075 9 4541 12 4481 11 4200 13 2608 5 3941
3042 2.05613 0.720031 6.78511 16 29 64 1.48686 4 2258 8 2007 10 4760 7 2074 12 4480 11 4198 5 3938
3041 1.04155 0.77331 6.86879 159 156 137 1.71967 8 1994 10 2407 12 2866 5 2264 15 2011
3040 0.761817 0.728186 6.88249 8 25 55 1.37985 4 2251 8 1969 10 2383 1 5037 13 2703 9 2526 5 2253
3039 0.792635 0.701477 6.86178 5 20 49 0.672114 8 1966 10 2389 9 2528 5 2255
3038 0.792635 0.701477 6.86178 5 20 49 0.672114 8 1965 10 2388 9 2527 5 2254
3037 0.665095 0.706703 6.88629 144 147 145 1.72478 4 2162 6 1969 8 1951 10 2375 9 2517 2 3111 1 4999 13 2692 5 2161
3036 -0.487652 0.759559 6.99328 34 49 77 1.85076 4 2228 8 1943 1 3087 13 2863
3035 -0.640495 0.752609 7.0065 16 30 56 1.61066 8 1935 9 2482 1 5196 13 2853 5 2143 4 2218 3 3559
3034 -0.640495 0.752609 7.0065 16 30 56 1.61066 8 1934 9 2483 1 5197 13 2852 5 2144 4 2219 3 3558
3033 -1.90279 0.764478 7.11292 13 22 33 2.06345 4 4168 8 1929 9 2469 5 3894 15 1992 17 2011 3 3581 16 4700
3032 0.721128 0.631994 6.85263 134 140 151 0.941716 8 1907 10 2334 9 2509 5 2163
3031 0.718415 0.590618 6.86144 209 207 186 2.02657 4 2159 8 1906 10 2333 9 2507 2 3088 1 2903 16 1857 5 2158
3030 -0.416682 0.612341 6.96732 191 185 172 1.72458 4 2148 8 1895 10 2313 2 3232 1 5116 13 2679 5 2151 15 1932 3 4295
3029 -0.549879 0.665425 6.98514 135 145 145 2.01499 8 1889 2 3218 1 5183 13 2674 3 3427 4 2145
3028 -0.655839 0.687887 6.9987 135 143 145 1.63732 4 2143 8 1879 10 2304 9 2476 2 5735 1 6380 13 2836 5 2129 3 3539
3027 -0.657926 0.621663 6.98609 30 35 64 1.94894 4 2136 8 1875 9 2441 1 6362 3 3398
3026 -0.566481 0.559012 6.96213 156 157 165 1.94592 4 2137 8 1867 10 2262 9 2442 1 5084 13 2651
3025 -0.607 0.557875 6.97064 133 140 148 2.14172 4 2135 8 1860 2 5682 1 5074 13 2646 3 3385
3024 -0.644397 0.569694 6.97055 33 38 67 1.71558 8 1858 2 5675 1 6363 13 2645 3 3381
3023 -1.77493 0.653114 7.07581 39 39 67 1.5696 4 2130 8 1855 9 2429 2 7237 1 6404 13 4865 5 2056 3 4317
3022 -1.77493 0.653114 7.07581 39 39 67 1.5696 4 2129 8 1854 9 2430 2 7238 1 6405 13 4866 5 2055 3 4318
3021 -1.79295 0.64828 7.06902 10 21 48 1.49116 4 2128 8 1849 10 2255 9 2424
3020 -1.79216 0.648432 7.06513 10 21 48 1.28669 4 2127 8 1848 9 2425
3018 -0.408249 0.509853 6.94858 218 208 182 1.52885 4 2090 8 1832 2 3078 16 1840 5 2073 3 3352
3017 4.31294 -0.0706164 7.41189 254 245 220 0.686088 4 2003 6 1838 8 1803 12 5588
3016 4.17673 -0.073303 7.42454 234 226 203 0.893845 6 1837 8 1798 7 1932 12 5585
3015 4.11137 -0.0738878 7.4355 235 227 204 0.821801 6 1835 8 1796 7 1926 12 4422
3014 3.90565 0.0248287 7.44504 248 244 219 0.705537 6 1830 8 1794 17 1872
3013 3.32473 -0.103978 7.47847 245 231 209 0.968199 8 1790 10 2163 9 2348 12 4374
3012 3.30011 -0.106574 7.48493 249 229 206 1.32243 6 1823 8 1789 10 2158 7 1912 9 2341 11 4087
3011 3.30011 -0.106574 7.48493 249 229 206 1.32243 6 1822 8 1788 10 2159 7 1911 9 2340 11 4086
3010 3.22541 0.0433049 7.52188 194 87 69 1.82233 4 2035 6 1826 8 1785 10 2226 7 1913 9 2346 12 4411 11 4107
3009 2.77795 -0.0174299 7.54464 140 166 157 1.10771 4 2023 8 1775 10 2212 7 1900 9 2323 12 4370 11 4080
3008 2.77795 -0.0174299 7.54464 140 166 157 1.10771 4 2022 8 1774 10 2213 7 1901 9 2322 12 4369 11 4079
3007 1.32862 -0.035498 7.66967 86 108 106 1.07059 4 2017 10 2123 9 2304 11 2073 3 4274
3006 4.12887 -0.138448 7.40191 165 154 148 1.59931 4 2001 8 1746 9 2366
3005 3.73678 -0.215679 7.40399 45 44 60 1.65864 6 1784 8 1738 7 1865 9 2264 11 4057
3004 3.74955 -0.238133 7.47112 255 255 233 0.836962 6 3496 8 1736 10 6036 7 4962 9 5614 9 6389
3003 3.72609 -0.318718 7.4824 225 217 194 0.240613 6 1656 8 1733 9 2259
3002 2.46906 -0.181247 7.54899 68 111 146 2.10227 8 1724 10 2142 9 2227 12 5519 11 5185 4 4025 5 1931 6 1760
3001 2.40559 -0.167812 7.55666 167 187 205 1.73729 4 1976 8 1719 7 1838 6 1758 9 4412 12 4314 11 4035
3000 2.28951 -0.207842 7.56802 165 184 198 1.47563 4 1954 8 1709 10 2041 9 2214 12 2451 11 3981 5 1911
2999 1.9535 -0.243265 7.54133 229 227 212 0.608914 8 1703 10 2032 11 3970
2998 1.921 -0.273633 7.57814 214 214 204 1.79217 4 1942 8 1700 12 4253 5 1864
2997 1.58705 -0.272713 7.5952 44 51 89 0.838135 4 1940 7 1729 2 2800
2995 1.13962 -0.122209 7.6689 81 107 88 1.21735 4 1935 10 2118 9 2190 11 2023 2 2919 1 4935 5 3777 3 3314
2994 4.24653 -0.479996 7.34776 227 222 193 0.826761 6 1675 8 1672 7 1782 12 5503
2993 4.10456 -0.375119 7.38266 116 120 74 1.22386 6 1670 8 1667 7 1776 9 4373 12 4276
2992 4.10456 -0.375119 7.38266 116 120 74 1.22386 6 1669 8 1666 7 1775 9 4372 12 4275
2991 3.83036 -0.332951 7.5311 204 196 173 0.294877 6 1660 8 1655 9 4360
2990 3.65724 -0.417289 7.38877 239 220 188 0.254672 6 1654 8 1650 12 4265
2988 3.64745 -0.49477 7.38285 247 237 207 1.27485 6 1652 8 1647 7 1676 10 4516 9 2051 12 2321 11 5134
2987 3.56948 -0.418086 7.38486 236 217 186 1.75349 6 1646 8 1643 7 3749 9 4356 12 5488 4 1893 11 5977
2986 3.22077 -0.314563 7.46698 203 101 80 1.34297 4 1889 8 1641 10 4572 9 2135 11 5159
2985 2.49487 -0.300825 7.52735 146 178 191 0.838252 4 1874 8 1632 10 2047 7 1741 9 2110 11 3987
2982 1.12855 -0.402903 7.63114 13 17 16 2.05496 4 1843 8 1607 12 2279 1 2611
2977 4.10038 -0.501669 7.36269 233 225 202 0.831686 6 1518 8 1572 9 4306 12 5451
2976 4.15747 -0.556769 7.38211 69 90 157 0.884012 6 1520 8 1571 7 1684 9 4310
2975 4.15747 -0.556769 7.38211 69 90 157 0.884012 6 1519 8 1570 7 1685 9 4309
2974 3.8116 -0.655593 7.35469 177 167 151 1.08376 6 1511 8 1562 7 1679 9 1920 12 4171
2973 2.63508 -0.516763 7.46961 73 118 122 0.863013 4 1754 8 1542 12 4212 11 3889
2972 1.58716 -0.612857 7.49718 219 199 174 1.7111 4 1744 8 1522 10 1816 9 1992 2 2422 1 4521 13 2271 16 1464 5 1787
2971 1.39102 -0.585988 7.534 93 51 34 1.4369 4 1739 8 1511 10 1804 12 2180 11 1767 2 2413 1 2134 5 1778
2970 1.29254 -0.528123 7.54822 102 88 69 2.03053 4 1737 8 1510 10 1802 9 1975 1 4678 16 1457 5 1777
2969 1.24757 -0.532405 7.56079 138 51 36 1.68911 4 1736 8 1509 10 1801 9 1974 12 2176 1 2406 5 1776 3 3229
2968 1.20661 -0.615028 7.56009 78 105 134 1.5343 4 1731 8 1503 10 1785 9 1969 12 2168 2 2405 1 4513 5 1774 3 3122
2967 1.11228 -0.556615 7.57593 252 242 210 1.69737 4 1728 8 1502 10 1787 12 2173 2 2408 1 4673 16 1449 3 3223
2966 1.11215 -0.556541 7.57799 252 242 210 1.66346 4 1729 8 1501 10 1788 2 2409 5 1771 3 3224
2965 1.0412 -0.6288 7.58031 244 233 209 1.58217 4 1727 8 1498 10 1782 1 2125 5 1672 3 3115
2964 -0.335027 -0.486351 7.71319 141 114 91 1.84341 4 1811 8 1482 2 5437 13 2377 16 1610 5 1752 3 3269
2963 -0.431087 -0.639939 7.70401 180 177 162 1.65085 4 1711 8 1474 1 4648 3 3198
2962 -0.431087 -0.639939 7.70401 180 177 162 1.65085 4 1710 8 1473 1 4647 3 3197
2961 -0.4947 -0.642868 7.7074 183 180 163 1.72131 4 1708 8 1472 12 2005 11 1735 3 3187 2 5275 1 4645
2960 -0.495226 -0.643081 7.70886 183 180 163 1.87503 4 1709 8 1471 10 1762 12 2004 11 1736 2 5274 1 4646 13 2232 16 1429 3 3186
2959 -1.45166 -0.635799 7.78843 207 211 203 1.41969 4 1683 6 1573 8 1453 10 1746 7 1594 9 1783
2957 -1.72464 -0.629209 7.80892 51 70 121 0.609601 4 1659 8 1436 10 1727
2956 -1.79988 -0.616442 7.82129 132 148 174 1.4855 4 1670 6 1557 8 1431 10 1722 2 6974 1 6212 13 4502 16 3435 5 1600 15 1605 17 1622 3 4176
2955 -2.06506 -0.607349 7.83996 98 61 52 1.25794 4 1650 8 1429 2 5505 1 2726
2954 -2.22616 -0.628407 7.84776 73 74 114 0.437707 4 1644 8 1426 16 1558
2953 -2.61416 -0.478673 7.83599 174 166 143 1.40978 4 1799 8 1424 2 7126 1 6333 13 4633 16 3512 3 4258
2952 -2.50336 -0.602196 7.83658 193 184 167 1.5805 4 1640 8 1421 1 6286 16 3426 3 3253
2951 3.91311 -0.756952 7.33289 76 75 115 1.18349 4 1612 8 1413 7 1558 9 4214
2950 3.91311 -0.756952 7.33289 76 75 115 1.18349 4 1611 8 1412 7 1557 9 4213
2949 3.82438 -0.788638 7.33112 178 176 172 0.636353 6 1395 8 1410 9 1908 12 4111
2948 3.75452 -0.778638 7.40056 87 83 120 0.421461 6 1394 8 1405 10 4361
2947 3.75036 -0.77165 7.34682 87 83 120 0.544846 6 1393 8 1404 10 4362 12 5339
2946 3.72331 -0.788099 7.46389 26 42 63 0.344574 6 1391 8 1402
2945 3.71232 -0.837441 7.33443 51 56 87 1.47904 6 1388 8 1400 10 4358 7 1543 2 4925 13 4463 16 3196 17 3211
2944 3.6489 -0.768721 7.34554 85 88 123 0.739221 4 1606 6 1390 8 1399 10 4356 9 4206 12 5338 11 5860
2943 3.65131 -0.777085 7.40411 85 88 123 0.430183 6 1389 8 1398
2942 3.49569 -0.783006 7.3327 74 72 118 0.415274 6 1385 8 1394 12 5334
2941 3.49569 -0.783006 7.3327 74 72 118 0.415274 6 1384 8 1393 12 5335
2940 3.25294 -0.698074 7.47626 240 229 209 1.1262 6 1504 8 1390 7 1534
2939 3.07817 -0.769736 7.37659 210 199 179 0.991505 4 1593 8 1388 7 3560 12 5325 13 2109
2938 3.07926 -0.770998 7.37941 210 199 179 1.08055 4 1592 8 1387 7 3559 9 4188 12 5324 11 5001 13 2108 2 1912
2937 1.58404 -0.83557 7.48525 90 83 74 1.47389 4 1556 8 1361 10 1626 9 1686 1 4413 16 1293 5 1527
2936 1.58404 -0.83557 7.48525 90 83 74 1.47389 4 1557 8 1360 10 1627 9 1687 1 4414 16 1292 5 1528
2935 1.52893 -0.82404 7.49752 159 156 141 1.74604 4 1549 8 1357 9 1682 12 4082 2 1886 1 4410 5 1521
2934 1.52853 -0.824358 7.49716 159 156 141 1.70228 4 1548 8 1356 10 1616 9 1681 12 4081 2 1887 1 4409 5 1520
2933 1.42858 -0.83023 7.50745 172 166 153 1.36078 4 1529 8 1349 10 4313 9 1671 12 4014 11 3713 2 4891 1 4396 13 2066 5 1507
2932 1.42858 -0.83023 7.50745 172 166 153 1.36078 4 1528 8 1348 10 4312 9 1670 12 4013 11 3712 2 4890 1 4395 13 2065 5 1506
2931 1.35624 -0.835974 7.52784 172 167 150 1.39778 4 1525 8 1344 10 1586 5 1486
2930 1.35624 -0.835974 7.52784 172 167 150 1.39778 4 1524 8 1343 10 1587 5 1485
2929 1.14071 -0.818509 7.54531 214 205 188 1.46519 4 1512 8 1334 10 1569 1 4371 3 2995
2928 1.14071 -0.818509 7.54531 214 205 188 1.46519 4 1511 8 1333 10 1570 1 4372 3 2994
2927 1.09218 -0.818342 7.53019 211 203 184 1.77483 4 1501 9 1645 1 4354 13 2041
2926 1.09218 -0.818342 7.53019 211 203 184 1.77483 4 1502 9 1646 1 4353 13 2040
2924 -0.345678 -0.740439 7.68464 73 53 26 1.79502 4 1479 8 1304 2 5277 1 6106 13 2027 16 3346 5 1643 3 4142
2923 -0.291305 -0.761292 7.67638 79 64 35 1.67677 4 1485 6 1449 8 1302 10 1543 1 6107 13 2031 16 3344 3 4144
2922 -0.463386 -0.82903 7.67474 63 42 11 1.7913 4 1476 8 1298 2 5052 1 4502 13 2023 16 1232 3 1133
2921 -0.736578 -0.794639 7.69403 193 196 212 1.01235 4 1472 8 1292 10 1535
2920 -0.837031 -0.802213 7.69894 91 100 133 1.05106 4 1465 8 1291 12 1990
2918 -0.951976 -0.808721 7.71581 209 210 201 1.60527 4 1464 8 1284 2 5035 13 2014 16 1426 3 3086
2917 -1.00416 -0.831018 7.71007 116 132 168 1.47726 4 1459 8 1283 10 1526 2 5030 13 2012 16 1217 5 1409 3 2964
2916 -1.72998 -0.6467 7.80856 158 164 188 0.876919 4 1657 8 1276 2 6979 13 2194 16 1563
2915 -1.72992 -0.647358 7.8085 158 164 188 0.774858 4 1656 8 1275 2 6978 13 2193
2914 -2.5003 -0.671651 7.84402 196 187 172 1.39339 4 1637 8 1265 13 4485 16 1544 15 1592 3 3139
2913 -2.49506 -0.755995 7.85255 173 167 146 1.4292 4 1435 8 1261 16 3328 1 4750 3 3137
2912 -2.56774 -0.761488 7.86089 149 142 116 1.59508 4 1431 8 1260 2 6968 1 6202 13 4482 16 3327 5 1585 15 1435 3 4168
2911 -2.48915 -0.798687 7.84482 41 31 32 0.947287 4 1432 8 1259 2 6897 1 6204
2910 4.37195 -0.963085 7.212 255 254 234 1.44019 6 3124 8 1251 7 4751 12 6086 7 1409 14 958
2909 4.35024 -0.986101 7.19083 226 219 200 1.13282 6 1239 8 1250 7 3459 12 6085
2908 4.25958 -0.902488 7.20065 172 160 146 1.29049 6 1237 8 1248 12 5264
2907 3.21239 -1.00603 7.32715 129 122 129 1.42191 4 1396 8 1240 10 4209 7 1390 9 1543 12 3936 11 3570
2906 3.21239 -1.00603 7.32715 129 122 129 1.42191 4 1395 8 1239 10 4208 7 1389 9 1544 12 3935 11 3569
2905 3.09454 -0.972697 7.34967 181 165 149 1.69997 6 1228 8 1237 10 4199 7 1379 9 4059 12 4037 11 4940 13 1870 16 3172
2904 2.39361 -1.02982 7.40229 215 155 64 1.69042 4 1367 8 1226 10 4177 7 1359 11 4890 5 1343
2903 1.46851 -0.862939 7.51181 171 165 153 1.49409 4 1537 8 1210 10 1599 5 1514
2902 1.46851 -0.862939 7.51181 171 165 153 1.49409 4 1536 8 1209 10 1598 5 1513
2901 1.44159 -0.861952 7.50303 163 157 145 1.44283 4 1534 8 1208 10 1596 12 1895 11 1652 2 1874 1 4390 5 1505
2898 1.381 -0.897923 7.50439 156 151 132 1.13001 4 1520 11 1519 2 1869 1 4299 13 1831 5 1494
2897 1.41175 -1.01613 7.48761 43 39 29 1.50324 4 1352 6 1185 8 1196 10 4165 9 1494 12 3906 2 4774 16 1073
2896 1.14918 -0.892521 7.53354 153 144 127 1.15989 4 1504 8 1182 10 1385 2 1849 1 4361 5 1455 3 2865
2895 1.14918 -0.892521 7.53354 153 144 127 1.15989 4 1503 8 1181 10 1384 2 1850 1 4360 5 1454 3 2864
2894 1.11089 -0.863067 7.53798 163 154 137 0.954733 4 1498 10 1558 9 1640 11 1605 2 1851 1 4343 13 2044
2893 1.11089 -0.863067 7.53798 163 154 137 0.954733 4 1499 10 1559 9 1639 11 1606 2 1852 1 4342 13 2043
2892 1.13982 -0.909288 7.53972 213 203 185 1.32613 6 1315 8 1167 1 4284 13 1822 5 1452
2891 1.07556 -0.941569 7.5295 210 199 181 1.95422 4 1344 8 1164 10 1377 12 3991 2 4861 1 4280 13 1819 16 1066
2890 0.690589 -0.926681 7.56514 189 183 161 1.75214 4 1338 8 1157 10 1362 12 1841 11 1497 2 1823 1 4338 13 1816 16 1242 5 1440 3 2843
2889 0.551454 -0.97939 7.56668 175 163 146 1.7419 4 1336 8 1155 10 1353 9 1623 12 1833 11 1489 2 1806 1 4268 16 1058 3 2831
2888 -0.243242 -0.965901 7.63579 106 113 132 1.60291 4 1315 8 1149 2 4849 13 1803 5 1432
2887 -0.300968 -0.856689 7.66291 52 40 24 0.945621 4 1482 8 1148 9 1615
2886 -0.465159 -0.952178 7.65467 132 152 201 0.628836 8 1144 1 4326 13 1793
2885 -0.866697 -0.989701 7.66072 137 151 190 1.05628 4 1293 8 1138 10 4134
2884 -1.74343 -0.912422 7.77171 192 200 214 1.37723 4 1443 8 1132 13 2007 16 1209 17 1440 3 2958 1 4490 2 5024
2883 -2.08358 -0.944833 7.78046 231 218 199 1.24736 4 1285 8 1124 10 1310 2 6818 1 6089 13 4382 16 3233 5 1401 15 1438 3 4089
2881 -2.60257 -0.984879 7.81774 42 33 30 1.18073 4 1278 8 1109 2 7840 1 6922 13 5551 16 3219 15 1315 17 1422
2880 4.19967 -1.12066 7.2548 65 113 106 0.736832 6 1106 8 1104 7 3348
2879 4.23391 -1.14049 7.2683 142 167 196 0.642524 6 1108 8 1102 7 1259
2878 3.26183 -1.10413 7.30868 125 114 96 1.23595 6 1102 8 1096 7 1249 9 1542 10 1278 12 3931 4 1239 11 4895
2877 3.24176 -1.20165 7.2973 241 228 209 1.32709 6 1099 8 1094 10 4017 7 1244 9 3891 12 3866 11 4867
2876 2.97669 -1.11466 7.33072 160 143 131 1.24194 4 1233 8 1088 10 4105 7 1241 9 1532 11 3557 12 1568
2875 2.97667 -1.1147 7.3304 160 143 131 1.3932 4 1232 8 1087 10 4106 7 1242 9 1531 11 3558
2874 2.05808 -1.20254 7.40615 228 220 199 1.21011 4 1211 8 1064 10 1223 2 1563 1 4182 5 1221
2873 1.28363 -1.12127 7.4866 230 222 201 1.62835 4 1194 8 1057 10 1203 9 1490 12 3905 11 3517 1 4224 5 1322
2872 0.722629 -1.05797 7.54406 33 27 27 1.63574 4 1341 8 1049 10 1357 9 1484 12 1660 11 1494 2 4770 13 1813 5 1315
2871 0.222608 -1.21527 7.55105 54 49 45 1.3051 4 1181 8 1043 10 1183 9 1477
2870 -0.0538269 -1.11575 7.58425 218 210 191 1.60945 4 1317 8 1040 9 1475 11 1318 12 1645 13 1608 5 1305
2869 -0.252478 -1.15447 7.57319 55 71 122 0.723494 4 1177 8 1035 5 1298
2868 -0.508469 -1.19868 7.61458 103 109 144 1.56491 4 1171 8 1032 2 4756 1 5954 13 1602 16 953 5 1289 15 1220 3 3997
2867 -0.508498 -1.19856 7.61466 103 109 144 1.68877 4 1170 8 1031 2 4755 1 5953 13 1601 5 1288 15 1219 3 3996
2866 -0.744514 -1.05938 7.65321 227 227 220 1.61581 4 1292 8 1028 9 1460 5 1287 15 1330
2865 -0.746181 -1.06109 7.65942 227 227 220 1.54129 4 1291 8 1027 9 1459 1 5985 13 1783 5 1286 15 1329
2864 -0.805467 -1.14511 7.64412 251 251 223 1.24245 4 1166 8 1025 13 1593 3 2759
2863 -0.855782 -1.14829 7.65336 249 247 226 1.67207 4 1163 8 1023 10 1156 9 1456 1 5980 16 1025 15 1327 17 1297 3 3990
2862 -0.909028 -1.15089 7.65534 252 249 232 1.96949 4 1162 8 1021 9 3916 12 1634 11 1299 1 5979 5 1278 15 1324 3 3988
2861 4.64682 -1.23271 7.19647 86 83 126 1.55534 6 1006 8 1011 7 3272 12 5091 12 6023
2860 4.64682 -1.23271 7.19647 86 83 126 1.55534 6 1007 8 1010 7 3273 12 5090 12 6024
2859 4.01549 -1.32195 7.23476 236 237 207 0.524158 6 1004 8 1007 7 1148 9 1330
2858 3.91467 -1.36434 7.2252 136 164 186 0.493668 6 985 8 995 7 1138 9 3825
2857 3.84168 -1.31094 7.21505 249 237 215 0.419929 6 991 8 994 12 3801
2856 3.79177 -1.30809 7.26782 242 235 216 0.236971 6 990 8 993 7 1135
2855 3.76179 -1.37675 7.21034 53 76 109 0.732542 4 1124 8 986 9 1315 12 5039
2854 3.66552 -1.35498 7.22818 32 34 38 1.27932 6 977 8 984 7 1126 9 3814 12 1327 4 1122 10 6615
2853 3.08257 -1.323 7.28936 191 141 70 1.49823 4 1116 8 979 10 4010 7 3249 9 3883
2852 3.082 -1.32288 7.28906 191 141 70 1.35277 6 974 8 978 10 4011 7 3250 9 3882 11 4833 4 1115
2851 1.97435 -1.2969 7.41024 200 193 167 1.03825 4 1110 8 966 10 1097 9 1388
2850 1.74609 -1.37181 7.40149 237 229 213 1.21981 4 1108 8 958 9 1383 12 1420 1 4135 15 1235
2849 1.41661 -1.24303 7.45398 231 225 213 1.18652 4 1197 8 956 10 1088 9 1379 1 1495 5 1189
2847 3.10405 -1.55793 7.23811 65 63 79 1.00097 6 879 8 908 7 1043 12 3707 11 3340 2 1240
2846 2.79011 -1.50469 7.29178 27 15 17 1.17093 4 1006 8 905 10 3941 7 1037 16 855 5 1131
2845 2.55735 -1.49968 7.30329 243 239 207 1.4562 4 1002 6 967 8 899 10 3934 7 1029 12 3742 11 4813 5 3304
2844 1.93581 -1.5517 7.34204 160 146 133 1.27028 4 975 8 891 10 991 9 1291 12 1299 11 1029 2 1225 1 1271 5 1110
2843 0.850205 -1.4438 7.46567 126 116 91 1.37613 4 1090 8 878 10 976 2 4600 1 4122 13 1490 16 915 5 1096
2842 0.850205 -1.4438 7.46567 126 116 91 1.37613 4 1089 8 877 10 975 2 4599 1 4121 13 1489 16 914 5 1097
2841 0.782181 -1.4362 7.47014 240 231 209 1.23244 4 1088 8 876 10 973 12 1393 11 1092 2 1340 1 4120 13 1488 16 916 5 1086 3 2676
2840 0.85039 -1.58311 7.433 182 170 148 1.36935 4 957 8 869 9 1280 2 1208 1 4039 5 1090
2838 0.674168 -1.45775 7.47511 189 176 155 1.30511 4 1086 8 858 10 962 9 1275 11 3418 2 4590 1 4114 13 1484 16 3026 5 1081 3 3924
2837 0.46215 -1.5058 7.48252 209 194 175 1.06727 4 1081 8 847 12 1272 11 1070 2 4484 1 4107 13 1367
2836 0.46215 -1.5058 7.48252 209 194 175 1.06727 4 1080 8 846 12 1271 11 1069 2 4483 1 4108 13 1366
2835 0.431553 -1.5097 7.48226 198 188 163 1.18313 4 1079 8 844 10 944 12 1270 1 4106 13 1364 3 2640
2834 -0.630184 -1.47738 7.56718 246 235 213 1.20873 4 1068 8 842 10 1062 13 1349 3 3916
2833 -0.651012 -1.47877 7.57616 244 233 211 1.0035 4 1067 8 840 10 1058 5 1064
2832 -0.753354 -1.50062 7.58001 188 174 163 1.11231 4 1053 8 828 10 931 16 3014
2831 -0.827284 -1.45555 7.59104 252 238 216 1.07753 4 1054 8 827 11 1181
2830 -2.07318 -1.49886 7.68091 208 197 177 0.727826 4 1041 8 815 13 1326
2829 -2.48316 -1.48717 7.70781 105 126 141 1.63462 4 3440 8 809 10 1039 2 7711 1 5911 1 6836 13 3951 16 4263 5 1040 15 1080 17 1185 3 3938
2828 -2.53321 -1.49009 7.71857 51 56 62 1.56464 4 1036 8 807 2 6539 1 5909 13 1312 16 3004 3 3937
2827 3.80065 -1.62061 7.15218 65 64 111 0.867889 6 752 8 798 12 4960 15 1158 12 5915 14 604
2826 3.80062 -1.62057 7.15202 65 64 111 1.03012 6 751 8 797 15 1159 12 5914 14 605
2825 2.0422 -1.62241 7.31581 173 162 164 0.996728 4 972 8 769 10 841 11 3329 2 1220 1 1151
2824 2.0422 -1.62241 7.31581 173 162 164 0.996728 4 971 8 768 10 840 11 3328 2 1219 1 1150
2823 2.03787 -1.68938 7.29751 55 49 83 0.832172 4 864 8 765 1 3979
2822 1.98336 -1.69266 7.30924 51 44 77 1.59121 4 861 8 764 10 833 7 913 9 1179 12 3692 11 3327 5 993
2821 1.95468 -1.70827 7.30224 179 180 184 1.25423 4 859 8 760 10 829 9 1176 12 1169 11 919 1 1143 5 989
2820 0.971495 -1.62529 7.41039 244 233 210 0.999601 4 958 8 738 9 1160 11 1018
2819 0.429046 -1.65838 7.44569 244 233 211 1.42342 4 945 8 725 9 1132 12 1155 5 952 15 1105
2817 0.141383 -1.74856 7.46026 97 97 131 1.26036 4 822 8 718 10 785 2 4394 5 943 16 2898
2816 -0.113643 -1.63997 7.50348 222 215 197 1.45772 4 938 8 716 9 1264 10 3912 13 1350
2815 -0.771806 -1.67728 7.54863 125 32 30 1.52558 4 922 8 709 10 768 7 963 12 1238 13 1225
2814 -0.673606 -1.78137 7.52143 40 28 26 1.17323 4 804 8 708 2 6466 1 5782 13 1223 5 934 15 979 3 3827
2813 -2.56799 -1.63956 7.69715 47 29 25 1.74136 4 910 8 699 2 6494 1 5866 13 3906 3 3891
2812 -2.46516 -1.76415 7.671 238 233 221 1.64651 4 3317 8 696 9 1240 2 4307 1 3928 13 1215 16 2881 15 972 17 1064 10 761 3 2491
2811 3.58032 -1.86111 7.12951 248 235 220 1.42548 4 764 8 685 9 957 11 3064 11 5532 15 1029 17 935
2810 3.15987 -1.74218 7.18989 122 68 57 1.13067 6 744 8 683 7 942 9 3659 12 3628 11 4687
2809 2.77471 -1.86209 7.20882 127 118 72 1.24067 4 757 8 679 7 857 9 1074 12 3571 11 4685 2 889 16 637
2808 1.76109 -1.878 7.28466 231 228 205 1.26703 4 717 6 730 8 673 7 3061 9 3652 12 3561 5 3143 17 1010 15 2997
2807 1.14747 -1.81163 7.35328 240 220 198 1.22395 4 852 8 656 10 3743 9 1049 11 3309 2 4331 1 5769 13 1264 16 696 5 3130
2806 0.839904 -1.8023 7.38614 236 229 203 1.37916 4 837 8 652 10 651 9 1147 1 3903 5 864
2805 0.760468 -1.79307 7.39395 196 149 133 1.19752 4 840 8 650 10 647 11 3304 2 4325 1 3897 13 1250 16 690 3 3844
2804 0.760468 -1.79307 7.39395 196 149 133 1.19752 4 841 8 649 10 648 11 3305 2 4326 1 3898 13 1251 16 691 3 3843
2803 -0.683088 -1.81412 7.51579 141 63 58 1.64854 4 801 8 619 1 3935 13 1221 16 668 3 2501 2 783 1 1081
2802 -0.773622 -1.88032 7.50717 162 147 130 0.615082 4 793 8 617 10 606 2 4308 1 3859 16 566 3 2458
2801 -0.773622 -1.88032 7.50717 162 147 130 0.615082 4 792 8 616 10 607 2 4309 1 3860 16 567 3 2457
2800 -1.82971 -1.95395 7.55611 218 176 93 1.69169 4 614 8 604 10 595 12 1132 11 972 2 4220 1 3848 13 1080 16 2829 3 2432
2799 -1.83094 -1.95347 7.55275 218 176 93 1.51731 4 615 8 603 10 594 2 4221 1 3849 13 1081 3 2433
2798 4.09934 -2.00063 7.07034 81 85 128 1.47975 6 461 8 592 12 3414
2797 3.176 -1.96172 7.15261 211 197 170 1.33999 6 636 8 587 7 2980 9 3604 12 3493 12 4871 13 1278 15 946 14 492
2796 3.176 -1.96172 7.15261 211 197 170 1.33999 6 637 8 586 7 2981 9 3605 12 3494 12 4872 13 1277 15 945 14 493
2795 2.89287 -1.86698 7.00877 27 18 14 0.905709 6 633 8 583 9 954
2794 2.90682 -2.06918 7.15528 181 167 118 1.37151 6 448 8 579 7 675 9 3494 12 3405 11 4595
2793 2.7309 -2.001 7.19664 232 227 197 1.01312 4 752 8 568 7 670 9 936 2 714
2792 2.73072 -1.99977 7.1896 232 227 197 0.784759 4 751 8 567 9 937
2791 2.83404 -2.07679 7.17863 175 163 121 1.85091 6 447 8 565 7 673 12 3403 16 538
2790 2.59157 -1.93457 7.21132 216 209 181 0.943152 4 748 8 557 7 839 9 931 12 3562
2789 2.56488 -1.95853 7.21263 205 197 176 1.42774 4 743 8 552 10 3703 5 786
2788 2.56772 -2.03395 7.19785 199 190 162 1.16536 4 741 8 549 10 280 12 518 11 3115
2787 1.98164 -1.99327 7.24426 170 163 171 1.70739 4 720 8 538 10 3697 7 832 5 764
2786 2.02433 -2.04271 7.25463 236 217 185 1.40199 4 724 8 533 9 914 5 760
2785 2.02433 -2.04271 7.25463 236 217 185 1.40199 4 723 8 532 9 913 5 759
2784 1.57839 -1.98562 7.29743 165 145 112 2.38621 4 709 8 518 7 824 16 611
2783 1.51733 -1.96499 7.31047 30 22 20 0.849005 4 712 8 513 10 3684 9 900 12 776 11 3201 2 674 1 3833 5 744
2782 1.46477 -1.9894 7.30547 122 87 59 0.951935 4 699 8 511 10 486 1 851
2781 1.52262 -2.00923 7.30047 24 13 11 1.32991 4 706 8 510 10 3682 9 897 12 3551 11 3205 2 677 1 3831 13 1136
2780 1.25235 -2.00706 7.31217 122 147 143 1.66927 4 692 8 504 10 481 7 805 12 774 11 583 1 3827 5 3025
2779 0.871921 -2.02211 7.34399 144 135 118 0.760487 4 690 8 497 10 469 1 840
2778 0.847865 -2.02746 7.33672 170 163 145 1.2313 4 688 8 495 10 468 9 884 5 2988
2777 0.597912 -1.98993 7.37183 240 232 206 1.83158 4 675 8 486 5 719 3 3796
2776 0.597912 -1.98993 7.37183 240 232 206 1.83158 4 676 8 485 5 720 3 3795
2775 0.575887 -1.9922 7.37073 242 227 202 1.55332 4 674 8 484 10 449 12 755 2 4246 1 3817 5 718 3 2405
2774 0.683537 -2.07464 7.34739 226 216 193 1.33368 4 678 8 475 10 444 9 876 12 759 11 572 2 4171 1 3728 13 1118 16 468 5 726
2773 0.683353 -2.0741 7.34651 226 216 193 1.55908 4 677 8 474 10 445 9 875 1 3729 16 469 5 727
2772 0.685554 -2.11571 7.33893 234 227 199 1.08601 4 513 8 473 10 443 12 758 2 527 1 3725 16 466 5 725
2771 0.474962 -2.03149 7.36554 165 62 63 0.978794 4 665 8 462 10 433 1 3811 2 649
2770 0.056786 -1.98127 7.4239 240 232 209 1.44661 4 656 8 452 1 5728 10 3738 13 1102 17 1001 3 3779
2769 0.0323445 -2.10538 7.40514 232 181 156 1.06973 4 498 8 445 10 410 2 4154 1 3706 13 993 16 451 3 2342
2768 0.0321799 -2.10537 7.40485 232 181 156 0.990785 4 497 8 444 10 409 2 4153 1 3705 13 992 16 450 12 735 3 2341
2767 -0.90647 -1.99859 7.45765 146 53 51 1.52779 4 642 8 437 12 918 1 792 3 147
2765 -1.26086 -2.05936 7.52175 152 70 49 1.09808 4 620 8 432 5 821 9 996
2764 -1.65742 -2.15244 7.53253 188 155 89 1.06248 4 461 8 422 2 4054 1 5643 13 895 16 429 3 3732
2763 -1.81573 -2.0608 7.53145 122 59 40 1.21295 4 610 8 418 10 591 12 906 2 6318 1 3774 13 956 3 3757
2762 -1.76849 -2.15098 7.523 86 105 49 1.26545 4 451 8 415 2 6265 1 3661 13 892 16 304 5 665
2761 -1.76757 -2.15185 7.52298 86 105 49 1.33784 4 450 8 414 10 380 2 6264 1 3660 13 893 5 666 3 3726
2760 -2.1025 -2.13887 7.56776 111 64 51 1.54006 4 440 8 410 2 6251 1 5627 13 3698 5 649 15 709 3 3720
2759 -2.30541 -2.10039 7.5911 77 42 32 1.17888 4 601 8 408 1 6696 13 3731 5 812 15 798 17 968
2758 -2.30198 -2.15502 7.58397 125 63 67 1.04444 4 426 8 407 1 6652 13 3674 5 647 15 701 17 780 3 4402
2756 3.15198 -2.15225 7.11946 159 139 102 1.55546 4 575 8 403 9 758 12 3361 11 3029
2755 3.03595 -2.18293 7.12348 200 191 151 1.13236 6 450 8 402 12 4789 11 4575 17 736
2754 3.02591 -2.09443 7.14752 52 20 17 1.49755 6 453 8 400 10 3465 7 678 12 3407 11 3026 2 719 16 543
2753 2.25888 -2.12419 7.21123 206 153 95 1.46016 4 550 8 388 10 3564 7 653 12 353 11 3047 5 2917
2752 1.9609 -2.12231 7.23333 206 157 99 1.76522 4 537 8 382 10 3555 9 718 11 420 12 498 1 717
2751 1.49257 -2.2337 7.25532 224 201 169 0.853528 4 525 8 365 1 581 5 575
2750 1.49274 -2.23344 7.25646 224 201 169 1.10549 4 526 8 364 10 210 11 410 1 580 5 574
2749 0.562436 -2.27009 7.31752 240 220 193 1.21789 4 509 8 351 10 192 2 414 1 550 5 557
2748 0.447903 -2.27629 7.31912 244 220 197 1.23957 4 345 8 348 10 189 12 474 11 395 2 411 1 3629 16 365 5 553
2747 0.343623 -2.237 7.33491 224 226 212 1.24516 4 507 8 336 9 857 2 4114 1 3627 16 2706
2746 0.194932 -2.26735 7.35676 50 63 94 0.973137 4 501 8 334 10 173 2 4104 1 3618 5 542
2745 0.0889683 -2.20349 7.38065 198 190 179 0.646542 4 489 8 329 10 169 5 539
2744 0.024998 -2.32423 7.36635 234 210 195 1.20717 4 341 8 321 10 3504 2 260 1 3603 17 687
2743 -0.0516815 -2.22898 7.38943 231 224 206 0.0955915 4 483 8 312
2742 -0.0936186 -2.21307 7.38548 186 178 168 0.664781 4 480 8 310 10 147 11 547 2 4093 1 3601 16 332 5 533
2741 -0.0936186 -2.21307 7.38548 186 178 168 0.664781 4 479 8 309 10 146 11 546 2 4092 1 3600 16 331 5 532
2740 -0.153602 -2.17241 7.38791 225 224 206 0.792873 4 476 8 306 12 716 11 656 2 4095 1 3687 13 989 16 442 3 2316
2739 -0.179007 -2.19797 7.37922 218 217 199 1.37536 4 471 8 305 7 586 12 715 11 536 2 4081 1 3598 13 984
2738 -0.063941 -2.2535 7.37604 229 224 205 0.581285 12 463 2 4088 8 301 1 3604
2737 -0.143402 -2.31519 7.36681 57 80 90 0.499706 4 335 8 297 10 127
2736 -1.65638 -2.21089 7.52038 233 203 130 1.36806 4 456 8 288 9 818 2 6266 1 5636 13 3706 16 2681 5 2947 15 718 17 794
2735 -1.74448 -2.19273 7.51393 233 196 116 1.02065 4 448 8 284 2 6260 1 5634 13 891 16 301 5 664 3 3723
2734 -1.78655 -2.27739 7.48143 247 224 186 1.25146 4 444 8 278 12 701 2 6228 1 3576 13 889 16 296
2733 -2.19088 -2.20472 7.55861 225 211 185 1.12683 4 429 8 265 10 362 2 6218
2732 -2.21226 -2.25946 7.56727 203 180 162 0.58311 4 422 8 263 1 5566 13 3675
2731 -2.23502 -2.21062 7.56874 226 210 187 0.932134 4 428 8 262 1 5620 13 3678 16 2667
2730 -2.23465 -2.2106 7.56953 226 210 187 1.05894 4 427 8 261 1 5619 13 3677 16 2666 5 642
2729 -0.00426712 -2.34443 7.362 232 216 187 1.02051 4 339 8 244 10 149 1 367 5 527
2728 -0.164351 -2.33137 7.35269 247 221 198 0.876951 4 333 8 241 10 123 11 530 2 252 1 3465 5 524
2727 -1.15138 -2.40562 7.46469 210 111 90 0.941243 4 318 8 227
2724 -1.74907 -2.36998 7.47103 120 69 63 1.41639 4 294 8 203 10 103 2 3916 1 3444 13 834
2723 -1.75111 -2.37223 7.47279 120 69 63 0.913259 4 293 8 202 1 3445 13 833 16 237
2722 6.81258 -4.0913 10.4605 67 59 57 0.328877 6 227 8 173
2721 -1.4663 -1.45216 7.65611 47 61 106 2.20304 4 8314 8 7217 13 8339 16 7097 14 7881
2720 0.612216 -0.978323 7.57743 113 104 89 1.86801 4 8306 9 8266 14 7882
2719 -0.0410655 -1.31659 7.53109 34 29 25 2.65844 8 7218 7 7747 9 8246 1 8921 13 8325 15 7362 17 6700 14 7865
2718 0.040931 -1.99762 7.36245 243 223 198 1.5415 4 8303 15 7361 17 6699 5 7232 14 7864
2716 4.1515 -0.255152 7.42622 227 214 192 2.00406 4 8294 6 7116 8 7192 7 7750 15 7344 14 7834
2715 3.55636 0.916196 6.70707 33 48 77 1.31133 4 8286 6 7124 12 8156 15 7330 17 6678
2714 3.5488 0.913127 6.69082 33 48 77 1.59562 4 8285 6 7122 7 7758 8 7204 15 7329 17 6679
2713 3.68598 0.0614643 7.47002 53 67 114 1.98665 4 8278 6 7118 8 7195 7 7752 12 8152 15 7325 17 6674 14 7840
2712 3.68598 0.0614643 7.47002 53 67 114 1.98665 4 8277 6 7119 8 7194 7 7753 12 8151 15 7324 17 6673 14 7841
2711 0.312666 -0.0546926 7.65286 48 65 111 1.90352 6 7064 8 7179 10 9234 7 7691 11 7818
2709 -1.01011 -0.161 7.76368 50 67 113 2.01188 6 7092 7 7690 9 8228 5 7202
2708 0.65169 -0.671615 7.61227 19 14 9 2.44072 4 8272 6 7089 10 9227 17 6667
2707 0.65169 -0.671615 7.61227 19 14 9 2.44072 4 8271 6 7088 10 9226 17 6666
2705 3.88675 -1.13832 7.25838 238 226 204 1.14815 4 8267 6 7083 7 7715 14 7789
2704 3.88517 -1.13712 7.25 238 226 204 1.51554 4 8266 6 7084 8 7170 7 7714 15 7270 14 7788
2703 3.88825 -1.14059 7.25995 238 226 204 1.8116 4 8265 6 7082 8 7169 7 7713 12 8134 15 7269 17 6633 14 7787
2702 1.20842 -1.18214 7.49104 166 155 135 1.85279 4 8264 6 7085 8 7168 7 7685 9 8219 1 8870
2701 3.46233 -1.46191 7.28207 52 64 106 1.55679 6 7080 2 10321 7 7745 9 8247
2700 -3.28549 -1.55973 7.755 218 206 184 0.979357 4 8262 6 7048 1 8920 15 7338 17 6661 14 7784
2699 1.59388 -1.58349 7.36955 232 138 99 2.32874 4 8261 6 7079
2696 1.81288 -0.279805 7.6106 178 175 163 1.32468 4 8245 6 7061 10 9233 9 8226 15 7282 17 6644
2695 1.81288 -0.279805 7.6106 178 175 163 1.32468 4 8244 6 7060 10 9232 9 8227 15 7281 17 6645
2693 0.0269412 -0.356814 7.72207 184 185 177 1.95801 4 8241 6 7057 8 7144 10 9198 9 8199 5 7182
2691 2.30747 -0.631995 7.4195 41 53 91 1.86538 6 7016 8 7142 10 9196 2 10296 13 8243 16 7032 14 7743
2690 4.09044 -0.753394 7.2569 52 67 110 1.13821 6 7054 8 7141 7 7717 13 8240 15 7276 17 6638 14 7799
2688 0.805377 -1.16672 7.42649 21 17 14 2.14078 6 7051 12 8071 9 8192 11 7812
2687 2.53904 -1.36714 7.39906 52 62 98 2.06057 6 7046 8 7163 7 7711 9 8217 11 7868
2686 2.54777 -1.35349 7.3243 52 62 98 2.11306 6 7047 8 7164 7 7712 9 8218 14 7785 17 6631
2685 -0.321269 -1.48929 7.54495 47 64 108 1.71014 4 8231 6 7050 8 7138 7 7643 9 8160 15 7262 14 7730
2684 -0.321269 -1.48929 7.54495 47 64 108 1.71014 4 8230 6 7049 8 7137 7 7642 9 8161 15 7261 14 7731
2683 -0.845178 0.65089 6.99572 223 211 187 1.77903 4 8209 6 6986 8 7112 10 9112 5 7159
2681 2.60634 -0.375651 7.516 95 149 160 2.0467 7 7650 2 10250 17 6602 14 7745
2680 -0.916113 -0.546826 7.76373 44 61 107 1.92965 6 7018 8 7107 10 9165 9 8164 2 10300 13 8272 16 7033 5 7153 17 6603 3 6014 14 7676
2679 3.56779 -0.93972 7.31631 46 59 101 1.66266 4 8204 6 7014 8 7104 7 7645 9 8195 12 8077 2 10190 13 8145 15 7230 17 6599 14 7739
2678 2.71147 -1.32714 7.30658 48 61 96 1.10765 4 8201 6 7012 8 7101 10 9191 15 7226 17 6596
2677 2.70829 -1.63293 7.26196 190 193 104 1.41754 4 8199 6 7008 15 7224 17 6593 14 7733
2676 2.71183 -1.63676 7.27069 190 193 104 1.81194 4 8198 6 7007 8 7136 7 7679 9 8189 15 7223 17 6592 14 7732
2675 2.43097 -1.75178 7.26303 42 53 85 1.1271 4 8196 6 7004 8 7096 7 7640 13 8184 15 7221 17 6589 14 7669
2674 2.43097 -1.75178 7.26303 42 53 85 1.1271 4 8195 6 7005 8 7097 7 7641 13 8185 15 7222 17 6590 14 7670
2672 4.66754 -0.247233 7.39821 242 234 211 1.70463 4 8151 6 6979 12 8084 15 7170 14 7681
2671 2.69002 -0.404943 7.45783 102 158 159 2.16544 4 8149 6 6977 8 7073 10 9167 7 7608 12 8052 15 7169
2670 3.64691 -0.641393 7.36219 226 222 210 1.40439 4 8147 6 6976 9 8165 15 7167 17 6552 14 7675
2669 1.40308 -0.693855 7.54767 103 96 86 1.99518 4 8146 6 6975 8 7072 10 9102 9 8124 5 7110 15 7166 14 7561
2668 -2.10165 -0.687316 7.76434 65 66 97 1.67268 4 8145 6 6922 8 7070 10 9008 7 7539 9 8057 13 8242 5 7109 14 7560
2667 -2.10262 -0.68901 7.76622 65 66 97 1.62635 4 8144 6 6921 8 7069 10 9009 7 7540 9 8058 13 8241 16 7007 5 7108 2 10298 3 6006 14 7559
2666 4.29743 -0.995659 7.21503 228 217 197 1.23773 4 8138 6 6968 8 7065 7 7603 12 8072 15 7042 17 6465 14 7552
2665 4.29743 -0.995659 7.21503 228 217 197 1.23773 4 8137 6 6969 8 7066 7 7604 12 8073 15 7043 17 6466 14 7553
2663 -2.36639 -1.10937 7.72828 40 52 90 1.78523 4 8135 6 6918 8 7057 10 9000 7 7534 9 8048 2 10287 13 8195 5 7036 17 6546 14 7546
2662 1.51769 -1.23007 7.4557 241 230 208 2.00192 4 8134 6 6966 8 7060 9 8115 1 8817 16 6973 15 7158 17 6545 14 7671
2661 1.74816 -1.77768 7.3066 29 32 65 1.99652 4 8132 6 6961 8 7052 7 7595 9 8110 2 10175 13 8124 16 6959 5 7095 15 7151 17 6440 14 7535
2660 1.74852 -1.77728 7.30605 29 32 65 1.98731 4 8131 6 6960 8 7053 10 9088 7 7594 9 8109 2 10174 13 8123 5 7094 15 7152 17 6439 14 7534
2659 3.50259 1.15913 6.67753 207 191 165 2.0324 4 8071 6 6938 8 7082 10 9122 7 7618 15 7087 17 6499 14 7587
2658 -1.99134 0.812954 7.13027 16 36 69 1.12962 6 6860 7 7320 9 7990
2656 2.82293 0.194288 7.53048 60 74 119 2.28966 6 6981 8 7076 7 7611 9 8132 11 7796 4 8062 15 7172 17 6485 14 7570
2655 4.48118 -0.110105 7.39789 41 54 98 1.67066 4 8060 6 6978 8 7075 7 7655 15 7070 17 6482 12 8088 14 7568
2654 3.81198 -0.142335 7.43951 46 61 104 1.71285 4 8059 6 6927 8 7019 12 8053 15 7068 14 7567
2653 3.81198 -0.142335 7.43951 46 61 104 1.71285 4 8058 6 6928 8 7020 12 8054 15 7069 14 7566
2652 1.68555 -0.169495 7.6131 220 212 190 2.09841 4 8057 10 9025 6 6846 9 8067 2 10056 1 8744 11 7701 13 8078 16 6852 5 7050 17 6481 14 7427
2651 -0.0902772 -0.201048 7.73429 228 220 197 1.84667 4 8056 6 6929 8 7074 10 9022 7 7550 9 8061 5 7114 15 7171 14 7565
2649 -2.00134 -0.482209 7.76104 241 230 208 1.48836 4 8054 7 7430 6 6923 9 7969 5 6935 15 7062 17 6479 14 7421
2648 1.7751 -0.50455 7.53571 189 187 175 2.20088 4 8051 6 6924 10 9103 9 8125 12 8020 11 7760 5 7112 15 7057 14 7563
2646 -0.0996593 -0.879844 7.6431 254 248 225 1.55026 4 8047 6 6919 8 7006 10 9011 7 7425 9 8051 1 8784 13 8149 16 6922 15 7050 17 6471 3 5955 2 10193
2645 4.49647 -0.97625 7.22761 48 61 105 1.47271 4 8045 6 6970 8 7067 15 7044 17 6467 14 7554
2644 3.83931 -0.885673 7.29316 229 220 203 1.10682 4 8044 6 6967 8 7064 7 7602 12 8048 15 7053 17 6464 14 7551
2642 -0.910983 -1.19503 7.6502 197 206 206 1.80918 4 8042 8 7005 10 9004 7 7409 9 7954 12 7861 11 7597 2 10241 1 8824 13 8140 16 6971 15 7041 17 6462 14 7408
2641 -1.96679 -1.25167 7.71118 247 236 214 1.33867 4 8041 6 6915 7 7408 9 7953 2 10240
2640 -1.96557 -1.25112 7.71801 247 236 214 1.90401 4 8040 6 6914 7 7407 9 7952 2 10239 1 8823 13 8190 16 6970 5 7034 15 7157 17 6461 8 7003 3 5980 14 7407
2639 -2.2272 -1.26406 7.74864 249 237 215 1.39724 6 6913 7 7405 9 7948 2 10237 1 8821 13 8188 16 6968 5 7032 14 7405
2638 1.38018 -1.45478 7.43447 213 128 89 1.98198 4 8037 6 6909 10 8996 9 8043 14 7540
2637 0.266295 -1.50757 7.51119 47 62 105 1.95075 6 6907 8 6996 9 8042 1 8813 13 8129 16 6903 17 6448 3 5975 14 7539
2636 -0.601182 -1.49451 7.56102 252 244 221 2.12526 6 6912 7 7531 9 8041 2 10228 8 6994 1 8812 5 7029 3 5974
2635 -0.838738 -1.50357 7.56379 223 211 189 2.16355 4 8034 6 6910 8 6993 2 10227 1 8811 13 8187 16 6964 5 7028 15 7017 17 6452 3 5973 14 7538
2634 3.73133 -1.62562 7.14895 249 237 213 1.5734 4 8033 6 6904 8 7055 7 7596 9 8112 2 10117 13 8057 15 7025 17 6441 14 7542
2633 3.10104 -1.56259 7.24048 115 114 119 1.42463 4 8032 6 6903 8 6998 7 7528 9 8038 12 8001 13 7961 16 6831 15 7024 17 6335 14 7401
2632 2.27869 -1.57038 7.29754 239 227 205 1.45303 4 8031 6 6902 8 7056 10 9091 7 7527 12 8000 11 7790 5 7098 15 7023 14 7541
2631 1.8338 -1.60002 7.36641 234 224 199 1.73867 4 8030 6 6901 8 6992 10 9090 9 8037 12 7999 11 7744 5 7025 15 7022 17 6450
2630 1.83472 -1.60001 7.3648 234 224 199 1.57474 4 8029 6 6900 8 6991 10 9089 9 8036 11 7743 12 7998
2629 -0.714999 -1.68751 7.53183 208 207 179 1.88658 4 8027 6 6905 8 6988 5 7023 16 6901 17 6447
2628 -0.715015 -1.68711 7.53186 208 207 179 1.82401 4 8026 6 6906 8 6989 16 6902 5 7022 17 6446 14 7398
2627 -2.42482 -1.85008 7.60501 47 57 93 1.99633 4 8024 6 6899 7 7399 9 7933 5 7020 15 7149 17 6443 14 7392
2626 2.29531 -1.9155 7.24111 238 223 200 2.16452 6 6898 8 6986 10 9084 12 7992 11 7737 13 8050 16 6825 14 7536
2625 1.49911 -2.08524 7.2882 59 51 48 1.68499 4 8019 6 6896 8 7049 7 7521 9 8105 11 7736 5 7089 15 7148 17 6432 14 7526
2624 -1.23424 -2.0147 7.50981 192 87 66 1.04778 4 8018 6 6801 15 7005 14 7394
2623 -3.07476 -2.10969 7.59315 203 184 154 1.56829 4 8017 6 6800 1 8804 5 6904 17 6436 14 7390
2622 -3.522 -2.14728 7.67111 212 193 161 1.5147 4 8016 6 6799 1 8802 5 6903 15 6998 14 7188
2621 -2.92866 0.714951 7.17371 18 37 70 1.63073 6 6858 1 8839 13 8217 5 6950 15 7085 17 6498 14 7439
2620 1.05866 0.117708 7.67209 48 65 109 1.76596 4 7922 10 8917 7 7449 9 7982 11 7706 17 6370 5 6948
2619 3.2704 0.0500548 7.48634 200 90 73 1.52102 4 7921 6 6850 8 6949 9 8074 11 7772 15 6901 17 6368 14 7437
2618 3.09229 0.0371072 7.53724 220 109 90 1.26429 6 6849 10 9034 9 8070 11 7771 7 7451
2617 3.36517 -0.0935482 7.4387 244 232 210 1.50365 4 7918 6 6851 8 7023 10 9028 9 8071 12 7962 15 6900 15 7067 17 6361 14 7432
2616 3.29747 -0.248674 7.43199 209 104 83 0.858787 6 6842 8 6944 10 9024 4 7915 14 7431
2615 3.10816 -0.276263 7.48092 215 107 87 1.34042 6 6841 8 6943 10 9023 7 7447 9 8068 11 7764 14 7247
2614 1.93594 -0.122891 7.60724 228 220 199 1.7128 4 7913 6 6848 8 6942 10 8914 9 7979 12 7884 5 6946 14 7246
2612 0.751022 -0.236876 7.6737 219 213 197 1.31587 4 7910 10 8909 7 7443 9 7977 5 6942 17 6359 14 7425
2611 4.14461 -0.355347 7.37615 144 141 139 1.49656 4 7908 6 6925 8 7018 7 7547 12 8024 15 6895 17 6357 14 7423
2610 3.40501 -0.461397 7.37456 32 32 36 1.54512 4 7907 6 6833 10 9018 9 8064 11 7763 7 7442 15 6891 17 6356 14 7241
2609 0.184403 -0.320606 7.73192 210 212 207 1.62384 4 7906 6 6837 8 6935 7 7136 5 6937
2608 0.184518 -0.32202 7.72998 210 212 207 1.13538 4 7905 6 6836 8 6934 5 6936
2607 -2.2672 -0.497074 7.86177 244 236 216 1.7053 4 7904 6 6832 8 7013 2 10257 1 8832 13 8153 16 6929 5 6934 17 6478 14 7420
2606 0.874721 -0.847406 7.56406 26 18 15 2.26951 4 7903 6 6825 8 7011 10 8899 9 7964 2 10130 15 6890 3 5922
2604 -0.678142 -0.948549 7.67267 65 77 127 1.53835 6 6821 10 8894 7 7420 9 7960 11 7603 2 10192 1 8783 13 8144 16 6920 5 6925 17 6469 3 5952 14 7410
2603 -0.678386 -0.948631 7.67204 65 77 127 1.53879 6 6820 10 8893 7 7419 9 7959 12 7869 11 7602 2 10191 1 8782 13 8143 16 6921 5 6924 17 6470 3 5953 14 7409
2602 -3.01111 -1.19739 7.795 40 50 86 1.67382 10 8725 7 7278 9 7825 12 7761 11 7323 16 6916 3 5949
2600 -3.00251 -1.20592 7.78994 40 50 86 1.57262 4 7893 6 6816 10 8726 7 7279 9 7826 2 10235 5 6923 15 7040 17 6346 17 6457 14 7218
2599 -3.44959 -1.33867 7.83729 231 219 197 2.2065 4 7892 6 6709 7 7277 10 8724 6 6813 5 6807
2598 -2.00022 -1.40703 7.69383 30 25 22 1.9031 4 7891 8 6919 7 7270 9 7822 2 10186 1 8777 13 8137 16 6908 3 5942 14 7211
2597 -2.215 -1.41989 7.72229 31 26 22 2.01428 4 7890 6 6706 8 6918 10 8721 7 7269 9 7821 2 10185 1 8776 13 8059 16 6907 5 6808 5 6917 17 6339 3 5941 14 7210
2596 3.88126 -1.51258 7.20704 47 62 104 1.63236 7 7529 9 8039 6 6808 14 7402
2595 -0.230018 -1.68001 7.48143 251 243 224 1.66613 4 7886 6 6811 8 6912 10 8883 7 7264 9 7815 9 7936 12 7846 2 10113 1 8726 13 8048 16 6828 5 6915 15 6864 17 6334 3 5912 14 7204
2594 -0.230018 -1.68001 7.48143 251 243 224 1.66613 4 7885 6 6810 8 6911 10 8882 7 7263 9 7814 9 7935 12 7845 1 8727 2 10114 13 8049 16 6829 5 6914 15 6863 17 6333 3 5913 14 7203
